              32

               0               0               0
            2.63            2.63               0
               0            2.63            2.63
            2.63               0            2.63
               0               0            5.26
            2.63            2.63            5.26
               0            2.63            7.89
            2.63               0            7.89
               0            5.26               0
            2.63            7.89               0
               0            7.89            2.63
            2.63            5.26            2.63
               0            5.26            5.26
            2.63            7.89            5.26
               0            7.89            7.89
            2.63            5.26            7.89
            5.26               0               0
            7.89            2.63               0
            5.26            2.63            2.63
            7.89               0            2.63
            5.26               0            5.26
            7.89            2.63            5.26
            5.26            2.63            7.89
            7.89               0            7.89
            5.26            5.26               0
            7.89            7.89               0
            5.26            7.89            2.63
            7.89            5.26            2.63
            5.26            5.26            5.26
            7.89            7.89            5.26
            5.26            7.89            7.89
            7.89            5.26            7.89

              32

         6.04201         6.04201         6.04201
         5.00778         5.00778         9.57031
         9.57031         5.00778         5.00778
         5.00778         9.57031         5.00778
         7.69195         7.69195         3.21921
         5.57321         5.57321         2.31679
         7.69195         4.67079        0.198052
         4.67079         7.69195        0.198052
         7.69195         3.21921         7.69195
         4.67079        0.198052         7.69195
         7.69195        0.198052         4.67079
         5.57321         2.31679         5.57321
         9.57031         2.88222         2.88222
         5.00778        -1.68031         2.88222
         6.04201         1.84799         1.84799
         5.00778         2.88222        -1.68031
         3.21921         7.69195         7.69195
        0.198052         4.67079         7.69195
         2.31679         5.57321         5.57321
        0.198052         7.69195         4.67079
         2.88222         9.57031         2.88222
        -1.68031         5.00778         2.88222
         2.88222         5.00778        -1.68031
         1.84799         6.04201         1.84799
         2.88222         2.88222         9.57031
         1.84799         1.84799         6.04201
         2.88222        -1.68031         5.00778
        -1.68031         2.88222         5.00778
         2.31679         2.31679         2.31679
        0.198052        0.198052         3.21921
         3.21921        0.198052        0.198052
        0.198052         3.21921        0.198052

